0.057955 0.179573 0.033861
0.021677 -0.067683 0.188515
0.054135 -0.062911 0.174195
0.101868 -0.124009 -0.012916
0.169648 -0.104915 0.023358
0.027405 0.002006 -0.129385
-0.031783 -0.081048 -0.032011
0.050316 0.145205 -0.050149
-0.109110 0.070742 -0.104566
-0.086199 0.140431 0.115007
0.019769 -0.096323 -0.357549
-0.042286 -0.103006 -0.345138
-0.111021 -0.039999 -0.128432
-0.134888 -0.005631 -0.153251
-0.126293 -0.030451 0.139826
0.001630 -0.181287 -0.043466
-0.048966 0.021099 0.248659
0.009266 -0.017086 0.323122
-0.007917 -0.088686 -0.267811
-0.046102 0.128020 -0.071152
-0.045150 -0.109688 0.190423
0.002583 -0.128781 -0.286905
-0.153979 0.025873 -0.180937
-0.058513 0.151887 -0.081652
0.036952 0.175753 0.024314
-0.101474 0.148069 -0.083563
-0.009825 -0.065775 0.162740
0.084685 0.080288 0.157012
-0.094791 0.139477 0.137918
-0.039422 -0.037135 -0.988576
0.021677 -0.083913 0.257250
0.085641 -0.043817 -0.110293
0.006403 -0.028543 -0.510295
0.020722 0.032555 0.382310
0.074182 -0.023770 0.121688
-0.017464 -0.083913 -0.814831
-0.030828 -0.089641 -0.411965
0.078957 -0.019950 0.128371
0.084685 0.063104 0.159876
-0.076652 0.031601 -0.076880
0.108552 -0.077230 0.002355
-0.070924 -0.022816 0.182787
-0.037511 -0.083913 -0.932252
-0.000281 -0.006585 0.298300
0.067502 0.080288 0.158921
-0.075697 -0.011359 -0.033919
0.033133 0.158570 0.016678
0.148645 -0.105870 0.008086
-0.027964 0.045920 -0.292633
-0.055650 0.189118 0.158921
-0.111974 0.128020 -0.079744
-0.019372 -0.021860 -0.285950
-0.044194 -0.083913 -0.833922
-0.081424 -0.046682 0.188515
-0.026055 -0.062911 -0.832014
-0.069016 0.039238 0.250567
-0.039422 0.004870 -0.040602
0.015950 0.036374 0.364171
-0.055650 0.166208 -0.081652
-0.010781 0.075515 0.093049
-0.020328 -0.117326 0.030997
0.035044 0.105110 -0.259220
0.013086 -0.007541 0.363216
-0.016508 -0.029497 -0.852061
0.006403 0.092699 0.039589
-0.069969 0.030646 0.246750
0.008311 -0.039045 0.273481
-0.083335 0.036374 -0.067333
-0.038466 0.030646 0.288753
0.061774 0.168116 0.016678
0.011178 -0.068639 0.324077
0.011178 0.080288 0.060591
-0.098610 0.133750 -0.077835
0.134326 -0.098233 0.005219
0.036952 0.131840 0.023358
-0.077608 0.054513 0.255342
-0.037511 -0.062911 0.020494
-0.038466 -0.061955 -0.151343
-0.055650 0.087925 -0.059697
0.131462 -0.089641 0.009994
0.035044 -0.080094 0.212381
0.025497 0.052603 -0.248717
0.038861 0.063104 -0.262083
-0.040375 0.016326 0.074910
0.039816 -0.018042 0.130282
-0.022236 0.000097 0.261070
-0.048014 0.178617 0.152237
0.074182 -0.083913 0.000447
-0.103382 0.010598 0.216201
-0.032739 -0.000857 -0.265903
-0.003145 0.050693 -0.244900
-0.005053 0.057377 0.169420
-0.037511 0.004870 0.287800
0.120007 0.002006 0.127418
0.110460 0.090789 0.145554
-0.049922 0.008688 0.331713
0.011178 -0.082958 0.216201
0.006403 0.032555 0.217153
-0.047058 -0.130691 0.189470
-0.018419 -0.061001 -0.852061
0.020722 0.127066 0.054863
0.084685 0.070742 0.143646
0.051272 -0.109688 0.067274
0.007358 0.163344 -0.078788
-0.116749 0.073606 -0.101702
0.052227 0.148069 -0.022464
-0.131068 0.012508 0.105460
-0.071880 0.022053 0.255342
-0.036555 -0.089641 -0.410054
-0.150160 -0.066729 0.149373
0.080866 -0.051454 0.116915
0.076094 -0.104915 -0.032966
0.040772 -0.117326 -0.378552
-0.015556 -0.039999 -0.999079
0.029313 -0.043817 0.181831
0.068455 0.056421 -0.100746
0.003539 0.048784 -0.247764
-0.043239 0.186255 0.139826
0.056999 -0.144056 0.125507
0.049363 0.173845 -0.048241
0.080866 0.086017 0.147465
-0.011736 -0.058137 -0.329863
-0.038466 -0.018042 -0.697407
-0.006961 -0.044772 -0.439648
0.040772 -0.090595 0.270617
-0.091927 0.004870 0.227656
-0.025100 0.060241 0.154149
-0.142524 0.057377 -0.174254
-0.006961 0.086017 0.135054
-0.082380 -0.000857 -0.031055
-0.036555 -0.061001 -0.220078
0.120963 -0.077230 0.003311
0.000675 0.023009 0.011903
-0.030828 -0.025679 0.277297
0.035044 -0.123053 -0.115065
0.114279 0.014418 0.142690
0.082777 0.065968 0.167512
0.032177 -0.105870 0.263933
-0.027964 -0.007541 -0.232489
-0.079516 0.062150 0.192334
0.024541 -0.014222 0.170376
0.014994 -0.025679 -0.537025
-0.069969 -0.094415 0.025269
-0.043239 0.032555 0.334577
-0.021283 0.134704 0.113096
-0.067105 0.016326 0.233384
0.005447 0.044012 0.269661
0.006403 -0.067683 0.258206
0.110460 0.051649 0.171332
-0.021283 -0.073412 -0.328911
-0.053741 0.123248 -0.060649
-0.020328 0.131840 0.115960
-0.023192 0.059285 0.305939
0.085641 -0.096323 -0.022464
-0.002189 -0.156467 0.111188
-0.090971 0.047830 -0.057785
-0.006961 -0.062911 -0.373777
-0.036555 0.133750 0.135054
-0.003145 -0.057182 -0.226762
0.054135 0.187210 -0.049194
-0.051830 0.025873 0.233384
0.034088 -0.091549 0.265842
0.069410 0.046875 -0.099791
0.003539 -0.057182 0.294483
0.014994 -0.128781 0.199017
-0.015556 -0.085822 -0.495976
-0.101474 0.131840 -0.103610
0.023586 -0.139282 0.203790
0.021677 -0.089641 0.259158
0.034088 -0.062911 0.169420
0.051272 -0.001813 -0.026283
-0.003145 -0.065775 -0.265903
0.015950 -0.013268 0.167512
-0.069969 0.095562 0.273481
0.024541 -0.076276 0.260114
0.125735 -0.065775 0.004267
0.121915 -0.064819 0.012858
0.003539 0.070742 0.060591
-0.078560 0.116565 0.165604
0.061774 -0.147875 -0.109338
-0.108155 0.007734 -0.072108
0.055091 -0.049546 0.176104
0.058910 0.092699 0.103552
0.047452 0.064059 0.118824
-0.001233 -0.086777 -0.342274
-0.026055 0.138522 0.125507
-0.057558 0.177663 0.142690
0.001630 0.032555 -0.254445
0.041724 -0.105870 0.055819
-0.049922 0.107973 0.133146
0.071319 -0.100142 0.012858
0.061774 0.180527 0.041497
0.098049 -0.008495 0.039589
-0.027011 0.030646 -0.259220
-0.002189 0.049739 -0.244900
-0.066152 0.019190 0.228612
-0.047058 0.199620 0.171332
-0.099563 0.026827 0.213337
-0.015556 -0.131646 -0.052058
0.021677 0.162388 -0.332727
-0.055650 0.155706 -0.080699
0.054135 -0.080094 0.020494
0.046499 -0.044772 0.179923
0.030269 -0.075320 0.280161
-0.055650 -0.065775 -0.050149
-0.006961 -0.014222 0.286844
0.024541 0.072650 0.283025
0.086593 0.002006 0.094957
0.045544 -0.105870 0.215245
-0.034647 -0.133555 0.121688
-0.031783 0.033510 0.290664
-0.023192 -0.129737 -0.715545
0.066546 -0.134510 -0.084516
0.023586 -0.081048 0.325986
-0.015556 -0.037135 0.214289
-0.020328 -0.020906 0.278253
-0.012689 -0.069593 -0.757551
0.003539 0.138522 -0.066380
0.074182 0.090789 0.155101
-0.027011 -0.153603 0.021450
0.016905 -0.052410 0.325030
-0.046102 -0.044772 -0.428193
-0.086199 0.013462 0.221928
-0.010781 0.067878 0.306891
-0.148251 -0.043817 0.167512
0.001630 0.028737 -0.249672
-0.021283 -0.110644 0.052000
-0.026055 -0.059091 -0.803372
0.059863 -0.093459 0.168468
-0.010781 0.074560 0.294483
-0.010781 -0.036181 0.285889
0.013086 -0.084868 -0.683087
-0.001233 0.003916 0.260114
-0.033691 -0.093459 0.064411
0.190651 -0.065775 0.041497
0.065591 -0.088686 0.028133
0.017858 -0.150739 0.191379
0.022633 -0.082958 0.178968
0.047452 -0.127827 0.134099
0.000675 -0.030451 0.296391
0.062727 0.062150 -0.065424
-0.009825 -0.160285 0.198062
-0.035603 -0.062911 -0.363277
-0.045150 0.187210 0.157012
0.063683 0.206303 -0.042513
0.159148 -0.070548 0.005219
0.147693 -0.098233 0.010950
0.054135 0.034464 -0.033919
0.012130 -0.000857 0.373718
-0.014600 0.123248 -0.037738
0.065591 0.171935 0.017630
-0.008872 -0.064819 -0.379507
-0.078560 0.029691 -0.057785
0.136237 -0.080094 0.007131
0.048408 -0.074366 -0.008144
-0.090019 0.039238 0.231475
